# .PCD v0.7 - Point Cloud Data file format
VERSION 0.7
FIELDS x y z
SIZE 4 4 4
TYPE F F F
COUNT 1 1 1
WIDTH 1609
HEIGHT 1
VIEWPOINT 0 0 0 1 0 0 0
POINTS 1609
DATA ascii
32.545246 21.05732 2.1073933
32.508224 20.731548 2.0900877
32.607483 23.109165 2.216954
32.497585 20.447729 2.0759408
32.539005 20.583664 2.0830765
17.933485 39.810936 3.1597896
12.73331 37.487991 3.0526562
18.079496 39.92421 3.1663694
32.640114 23.56823 2.2434077
32.627903 23.725021 2.2518356
32.635426 23.630901 2.2467756
18.031246 39.885311 3.1644475
33.540821 47.472778 3.5192409
16.793533 39.544086 3.1502719
12.414167 37.502552 3.0574913
7.3447285 12.411906 1.7319429
12.347517 37.498718 3.0585074
32.835419 22.552374 2.1914239
7.346097 12.343809 1.729297
32.840858 21.963148 2.1598845
32.835426 22.02702 2.1633193
7.1812477 12.580714 1.7425137
7.1411171 12.589152 1.7430973
21.557932 -5.3254433 0.73823071
33.391739 48.010506 3.5525041
32.865471 22.535999 2.1914506
18.24584 40.322861 3.1921546
16.685589 14.152291 1.7972714
7.3450546 12.030995 1.714569
11.575418 37.18401 3.04722
32.405613 14.713776 1.7765095
32.896156 29.391071 2.5600719
6.9030905 12.577351 1.747256
18.332613 40.459282 3.2011695
16.749973 13.994379 1.7906144
7.3096771 11.616383 1.696511
32.744213 19.834963 2.052362
11.232745 37.19899 3.0521545
32.447464 18.924007 2.0046072
32.443733 18.85614 2.000989
15.834045 17.504944 1.9844384
32.439449 14.461378 1.7669016
16.410728 16.763569 1.9428775
33.181648 15.457116 1.817724
32.888901 29.746515 2.5841179
15.890429 17.365387 1.9777884
22.871637 -6.1137505 0.69874066
15.923943 17.32465 1.9754987
32.74115 19.56572 2.0399716
11.002975 37.204842 3.0552278
16.013557 39.990112 3.1877184
32.468269 18.759956 1.9977653
32.79958 24.931671 2.3268368
7.3021526 11.467219 1.6905589
16.264101 16.829849 1.9489093
22.422176 -6.2068729 0.69624132
32.723591 19.348175 2.029393
15.928408 17.260954 1.9730779
32.426491 14.319652 1.7613654
10.8027 37.218102 3.0586002
32.423931 14.217595 1.7569156
32.43943 14.257035 1.7589744
15.963737 17.13657 1.9683104
16.199648 16.843918 1.9518771
16.01737 17.05928 1.9639988
16.048019 17.015114 1.9615352
32.430748 14.1595 1.7547867
32.914387 24.925987 2.3291588
20.926451 -6.3837795 0.69471061
33.074558 24.469524 2.3052135
32.729542 25.733952 2.3739922
32.717209 25.712234 2.3728709
32.716217 19.056299 2.0168073
32.608883 18.672203 1.9966135
32.727436 25.803143 2.3787022
10.486075 37.225861 3.064064
32.730499 25.998297 2.3911347
33.095901 30.021574 2.6051605
33.146095 14.850457 1.7933986
32.738991 26.073196 2.3961153
32.733185 18.589325 1.9957759
32.735947 26.233931 2.4057255
32.431725 13.785462 1.7407825
32.744175 26.27298 2.4087884
16.560232 13.495589 1.7785764
32.739857 26.306833 2.4106138
7.1284094 10.593427 1.6544014
32.73867 26.379913 2.4155285
16.625057 13.378616 1.7741081
32.407608 13.587828 1.7332935
33.111599 30.365452 2.6285121
33.107941 30.310905 2.6256061
32.732933 26.542307 2.4252362
33.315674 24.901634 2.3365479
33.342731 24.872627 2.3359084
33.104591 30.570107 2.6424878
33.110786 30.522474 2.639919
6.989089 10.095482 1.634231
32.406746 13.279997 1.7208345
32.407719 13.336202 1.7238379
15.450467 14.102757 1.8207228
32.402115 13.225627 1.7189426
32.967182 18.183727 1.9833213
32.395256 13.174862 1.7172508
33.116131 30.766287 2.6559491
15.48902 13.935492 1.8146522
33.007893 30.97748 2.6686051
32.685593 17.488726 1.9480708
32.403301 13.022028 1.7110511
32.44812 17.001875 1.92381
32.927082 31.130899 2.6780801
33.391453 39.523483 3.1255207
33.111885 30.926226 2.666522
33.007675 18.128925 1.982259
15.458881 13.847069 1.8120241
15.192413 14.10178 1.8265282
15.146553 14.103307 1.8277625
32.437061 16.807371 1.9154441
33.043304 18.018837 1.9782552
32.39896 12.908025 1.7069695
15.074614 14.077124 1.8276002
33.023888 26.872263 2.4529448
7.1835203 9.1104021 1.5879024
7.1850929 9.1951971 1.5924335
33.061127 17.972511 1.9767196
7.2141762 9.0097485 1.5834181
33.024807 26.988966 2.4601862
32.351341 12.745741 1.7004478
33.089195 17.921719 1.9749113
33.220703 39.917534 3.1511693
13.547478 22.798698 2.3002045
6.9169798 9.2213764 1.5967201
33.073616 17.851463 1.9722058
33.032257 27.050774 2.4644697
15.419317 13.718693 1.8092926
7.2174206 8.9278698 1.5800287
33.21888 40.039963 3.1597278
33.022827 27.123745 2.4694059
7.2144794 8.6678343 1.5681305
33.138298 17.76428 1.9693316
13.912895 -7.4615135 0.6832
32.964088 31.59067 2.7105656
13.409268 -7.4361782 0.68721628
27.771107 -8.3848915 0.58913887
32.972084 31.685184 2.7165968
33.119392 17.575729 1.9613099
33.149349 17.641518 1.9647306
6.6531887 9.2135973 1.601179
32.399914 16.267838 1.8937136
7.215291 8.4931049 1.5607833
8.1831808 37.349003 3.1022749
8.2883873 37.428856 3.1061997
32.373699 16.156994 1.8888717
32.967449 31.800064 2.7247608
8.110673 37.329109 3.1024508
33.055756 27.579451 2.4996846
33.024841 27.644201 2.5032501
8.017519 37.330502 3.1038337
33.092934 27.53677 2.49828
28.2988 -8.8256207 0.56882977
32.847672 28.04608 2.5263345
32.784359 28.177982 2.5335994
32.965454 31.917404 2.7330475
7.8490381 37.360889 3.1080174
18.153824 43.057404 3.3798041
32.96558 32.039371 2.7415745
32.935677 28.03138 2.5272608
32.808834 28.255219 2.5396533
33.041283 27.817677 2.5154808
32.806057 28.338934 2.5451427
33.05349 27.88657 2.5201275
18.434521 43.184059 3.3866568
33.013039 28.032524 2.5290704
7.4974499 37.333851 3.1107337
7.587122 37.339382 3.1107345
7.3711729 37.364548 3.1147952
7.2229376 37.367592 3.1174493
6.9515438 7.6209373 1.527012
32.816818 28.670633 2.5678589
6.9326019 7.5104322 1.5221642
32.827805 28.721346 2.571537
6.9515419 7.4340849 1.5190189
32.834568 28.836618 2.5796843
6.8251143 37.370899 3.1229427
33.170319 32.452301 2.7730045
33.16711 32.512569 2.7762392
32.833557 28.971167 2.5888882
6.7011166 37.393875 3.1265833
6.9774895 7.0788908 1.5039377
33.287788 41.636627 3.2659464
33.025154 11.944286 1.6793871
32.837597 29.109657 2.5982866
33.195251 32.70068 2.7902153
32.59557 21.361248 2.1865768
32.577042 11.409577 1.6542618
32.956059 11.717293 1.6694746
32.540607 20.959671 2.1652751
32.592331 21.330202 2.1849267
32.849117 29.232018 2.6067972
32.36375 14.810993 1.8379288
32.594318 21.251699 2.1817222
32.650444 22.669844 2.2574024
7.1505775 6.4683914 1.4747137
32.582684 21.063591 2.1716971
32.652977 23.092964 2.2810307
32.343166 11.076767 1.6392312
32.704838 22.608738 2.2549558
32.65493 23.392118 2.2970278
32.655815 23.361126 2.295367
33.190353 32.892525 2.8034987
33.305008 41.956543 3.2880111
32.852001 29.422028 2.619957
32.663723 23.424877 2.299753
32.659035 23.487549 2.3031211
32.666901 23.742161 2.3177173
32.671829 23.567593 2.3083622
33.306938 42.107841 3.2981014
32.548004 20.369774 2.1376994
32.545189 20.418663 2.1403241
32.586056 20.634764 2.1517498
32.340881 10.897583 1.6326574
33.215481 33.050613 2.8148775
32.632202 14.872608 1.8453476
32.960781 11.372128 1.6570024
32.587276 20.296791 2.1356685
33.21936 33.088638 2.8179002
32.843849 29.678207 2.6376941
33.099804 15.47644 1.8771107
33.048798 15.369443 1.871555
33.001415 15.282112 1.8670392
33.214668 33.151257 2.8222671
33.091248 15.38811 1.8734151
32.390984 14.413267 1.8235723
32.863121 29.763855 2.6442151
32.909851 22.549765 2.2581353
33.141293 33.349045 2.8350925
32.995892 33.507488 2.8440475
32.317444 10.628937 1.6223689
32.392139 14.361637 1.8218079
32.385227 14.314989 1.8203366
32.310051 10.562904 1.6198622
37.690945 25.506992 2.4035854
32.372551 14.170117 1.8146312
32.319447 10.437403 1.6161218
37.74456 25.468643 2.4023585
33.014229 33.741005 2.8604853
32.384384 14.081033 1.8118293
33.322903 42.825912 3.346477
32.808075 20.217625 2.1387172
37.696014 25.827879 2.4227376
32.825047 20.180788 2.1366906
32.712288 25.092485 2.4008207
32.817673 20.132196 2.1351171
5.4625816 37.907593 3.1771736
32.757076 24.986444 2.3960018
32.509579 18.917068 2.0721288
32.78339 24.958693 2.3944304
32.79781 19.718136 2.1150346
32.141487 10.075907 1.6013752
32.71685 25.246241 2.4110339
32.501167 18.798948 2.0668392
33.032246 33.942783 2.875226
32.966003 24.379911 2.3648689
32.722633 25.418232 2.421217
32.510635 18.76075 2.0657659
32.134148 10.005761 1.5986483
32.791187 19.498985 2.1053357
33.033485 34.091171 2.8851628
5.261816 37.940414 3.1825953
32.377705 13.791963 1.8013946
32.969528 24.464191 2.3703675
16.752916 13.706593 1.8493154
5.0754681 37.908375 3.182497
32.732635 25.508116 2.4279952
32.370564 13.744344 1.799872
34.341713 28.061209 2.5592737
32.744755 25.546299 2.4299982
32.798927 19.444778 2.1034117
32.787445 19.413624 2.101783
32.788578 19.34461 2.0980873
4.9813213 37.892555 3.1829624
32.775333 19.262516 2.0947406
32.776207 19.157597 2.0901265
32.355312 13.53641 1.7918029
32.776093 19.035469 2.0845947
32.766605 19.056175 2.0857339
32.748367 25.774107 2.4451776
38.224663 25.238956 2.3985035
38.262974 25.296564 2.4024606
32.755424 25.847292 2.4500706
32.764908 25.939404 2.4559684
4.3513832 37.501175 3.1681066
32.109261 9.5874901 1.5833646
33.039917 34.439178 2.9107687
33.282421 23.997053 2.3513565
32.760677 18.5966 2.066175
32.767033 26.282427 2.4783177
6.9728003 25.527199 2.5229125
32.92971 30.977261 2.7309399
38.849297 21.673374 2.2137117
33.070103 30.793322 2.7206373
33.412636 44.067986 3.429652
32.955845 30.94442 2.7290969
38.838154 21.522089 2.2056553
38.834618 21.420315 2.2002225
38.836002 21.369711 2.1975107
38.828255 21.293556 2.1934624
38.86042 22.332571 2.2489398
3.8192844 37.497047 3.1756477
38.84481 22.3578 2.2503407
38.870251 22.078812 2.2363336
38.882187 22.281212 2.2471218
38.872696 22.002304 2.2322326
38.840218 21.344038 2.197125
38.8536 21.622028 2.2119522
32.779896 26.488556 2.4923067
33.060444 30.921701 2.7295399
32.760132 26.591667 2.4988894
18.236414 46.264465 3.5991666
18.308022 46.297859 3.6007171
33.325779 24.922192 2.4087162
32.348381 12.967992 1.7724333
32.475605 17.4219 2.0112824
32.299129 12.837901 1.7676392
3.4377232 37.555981 3.1850648
32.915985 31.270615 2.7516856
32.544666 17.483543 2.0153542
32.484962 17.261574 2.0046778
32.923668 31.333393 2.7560203
33.328972 34.934727 2.9483435
32.645729 17.471867 2.0174007
3.1950054 37.550468 3.1885738
33.32579 35.012325 2.9545083
33.042938 18.22974 2.0586381
33.403831 44.750847 3.4762259
32.931618 31.657442 2.7803395
15.258959 13.978612 1.8928248
15.193913 14.038072 1.89622
33.079056 18.026058 2.0516286
32.504574 16.853277 1.9907823
33.341736 35.318176 2.9758248
32.930367 31.773579 2.7885594
32.493908 16.777758 1.9877789
33.344749 35.404579 2.9824398
2.5773411 37.57975 3.2001872
14.87039 37.271767 3.1432035
14.660595 37.21447 3.1418314
14.949944 37.347351 3.1479864
14.973316 37.359283 3.1485476
33.069355 26.972513 2.5332656
33.076363 26.937 2.5313427
32.497498 16.63213 1.9819794
15.10105 37.460449 3.1545401
15.184547 37.531052 3.1580422
32.946686 31.937851 2.8002977
14.302725 37.091488 3.1384342
33.421192 45.435806 3.5218244
33.055252 27.181976 2.5465205
32.937286 31.989265 2.8040807
15.287651 37.623661 3.1636579
32.926693 32.039936 2.8078277
33.150909 17.704054 2.0401745
32.481735 16.369881 1.9720078
32.494141 16.404922 1.9738414
33.206738 17.757532 2.0438528
15.55016 37.881737 3.1796031
15.506952 37.846779 3.1778755
2.0239124 37.593941 3.20978
33.361599 35.809643 3.0110636
32.754585 8.4394665 1.5498663
15.276884 13.532592 1.8799212
33.097549 27.382084 2.5620933
33.357941 35.980675 3.0232298
32.29113 7.9657841 1.5290575
33.36644 36.168285 3.0372438
32.977734 28.039007 2.6036396
33.100029 27.791615 2.5900021
33.344288 36.230919 3.0416689
32.820801 28.396046 2.6252599
32.081329 7.5347891 1.5116996
32.621887 7.9172812 1.5303801
33.127457 32.479351 2.8426905
32.824303 28.462889 2.6298256
32.38575 11.491335 1.7233579
32.252979 11.329686 1.7161493
33.370232 36.401127 3.0536933
32.829361 28.597031 2.6389878
33.55426 46.609173 3.601181
15.730374 38.616268 3.2323241
33.153824 32.729389 2.8609867
32.726009 15.846571 1.9602321
32.946888 11.765076 1.7411602
16.121181 38.912891 3.2489076
15.977083 38.820663 3.2444487
17.199593 39.306046 3.2663863
32.839085 28.802822 2.6539705
16.168285 38.94688 3.2515719
17.430058 39.415821 3.2725005
17.082211 39.304943 3.2677155
32.842854 28.849079 2.657434
17.475338 39.459473 3.2756882
33.150009 32.856339 2.870795
32.833847 28.889116 2.6606071
32.718075 11.397156 1.7252361
17.68749 39.635078 3.286386
33.146877 32.986256 2.8797584
23.055086 -4.6131306 0.90259153
32.820053 11.389421 1.7264891
22.67367 -4.6227207 0.90333551
23.141186 -4.6313839 0.90133137
33.514153 47.14259 3.6368587
33.165371 33.038223 2.8844805
17.951559 39.847633 3.2998915
16.832615 39.513241 3.2866912
32.844013 29.192175 2.6827946
23.530376 -4.8844624 0.8905158
33.518791 47.365997 3.6528006
12.59126 37.490517 3.1934607
21.769846 -4.9731693 0.89257312
16.748571 39.579124 3.2924955
32.857075 29.364397 2.6949692
7.3110723 12.416576 1.8725047
7.2438841 12.510402 1.8777454
16.631439 39.652817 3.2988265
7.1554356 12.522999 1.8797121
7.3138762 12.350194 1.8699456
37.628132 25.445267 2.4705906
32.393944 14.724707 1.9143295
21.45746 -5.1993294 0.88550955
32.97966 33.633629 2.9249556
12.182826 37.527 3.2027669
7.300643 12.098688 1.859539
32.427521 14.623256 1.9117961
33.081154 15.45308 1.9550362
32.998631 33.76136 2.9347305
18.209343 40.341434 3.3354726
11.582162 37.216038 3.1901138
12.047118 37.517853 3.2047276
33.13002 15.538008 1.9594183
32.117359 10.229825 1.6787878
11.742893 37.39151 3.1999726
11.545061 37.2155 3.1912086
32.697338 14.860167 1.9255836
16.328423 39.80912 3.3141952
18.295374 40.479057 3.3445542
33.137371 15.438692 1.9560839
33.006119 33.914375 2.9458957
32.435989 14.36345 1.9028767
32.870853 29.782393 2.7262979
32.09951 10.054259 1.6734604
33.085758 15.042168 1.9410501
33.133369 15.13047 1.9456171
32.082245 9.8334093 1.6657083
33.009773 34.176899 2.9659364
32.42429 14.087828 1.8941791
38.200104 25.108541 2.4647126
33.052422 14.844654 1.9335982
32.428417 14.03134 1.8931465
10.736794 37.242321 3.207324
32.077599 9.6310797 1.6599071
32.428001 13.951352 1.8898702
10.592892 37.229004 3.208087
33.063515 30.022709 2.7485335
7.0697908 25.450258 2.5905805
33.068947 30.128035 2.7561526
10.460477 37.246731 3.2124763
38.766529 21.092793 2.2580333
32.421841 13.660004 1.8813146
38.799423 22.356346 2.32552
38.788288 21.623274 2.2863402
38.764969 21.194742 2.2634923
38.772804 21.245224 2.2661672
38.816055 22.027103 2.3088536
38.828964 22.229277 2.3196266
38.797127 21.521606 2.2818739
7.0508261 10.676785 1.8073289
33.076866 30.417259 2.7776079
33.084496 30.371338 2.775126
32.417164 13.553263 1.8776228
32.401451 13.39982 1.8724701
33.08503 30.555695 2.7889924
9.9986315 37.513077 3.2392621
33.093048 30.667595 2.7969549
32.411678 13.24739 1.8682878
33.291451 34.888214 3.0230896
38.873142 25.172516 2.4849443
6.9192171 10.146027 1.7893834
39.008144 25.143602 2.4859571
32.914513 31.119865 2.8267453
33.076283 30.952377 2.8182538
33.113937 30.929132 2.8168859
9.6741362 37.604671 3.2512403
33.588772 39.244289 3.2611518
33.309116 35.192585 3.0453227
32.916924 31.177677 2.8318329
32.909016 31.226686 2.8354821
32.915489 31.288723 2.839781
32.395546 12.883436 1.8568825
14.868418 37.158386 3.2142551
32.378159 12.840284 1.8556325
33.295456 39.550323 3.2814941
33.218552 39.607452 3.2848039
32.346069 12.752374 1.852037
6.9187307 9.6224728 1.768387
33.294754 35.42247 3.062675
14.512442 37.09544 3.2150652
15.086678 37.368408 3.2277758
15.175429 37.426491 3.2305903
32.931175 31.445911 2.8521438
15.210695 37.475582 3.2341018
9.187252 37.630817 3.2622547
28.447136 -7.6441231 0.77675474
7.1451378 9.1461821 1.7451655
33.236588 39.883053 3.3044951
14.184631 36.973579 3.2116292
28.274042 -7.7634258 0.7719444
9.112464 37.618645 3.2628515
6.9207697 9.1660452 1.7509731
8.9657335 37.636669 3.2673035
12.798987 -6.8602371 0.87526041
7.1913862 8.7594681 1.7293324
8.8720093 37.644356 3.2690248
13.925905 37.04356 3.2212327
12.840158 -7.0424347 0.86738068
32.070168 7.9994688 1.6086982
8.6978931 37.642159 3.2724855
32.051773 7.9781027 1.6086173
27.732063 -8.3348007 0.7511754
29.342567 -8.1420803 0.75717986
8.5257711 37.635445 3.2746964
8.2434368 37.410561 3.2645977
8.2653265 37.481277 3.26931
32.44017 8.0299549 1.6141171
8.2967663 37.544662 3.2725973
32.478359 8.021925 1.6145632
13.211146 -7.6505108 0.8406387
32.938366 32.074463 2.9007668
32.042774 7.587842 1.5957811
13.356341 -7.8490238 0.83154339
7.8753977 37.361645 3.2682006
32.706169 7.9813328 1.6156467
7.1768227 7.9937372 1.7004341
18.343573 43.084213 3.5418446
18.175392 43.072517 3.5427744
18.100018 43.105629 3.5457957
28.949823 -8.9427338 0.72665775
16.000782 38.767666 3.3236527
17.174866 39.209003 3.3443956
29.190216 -9.1124458 0.71979117
33.297203 36.664078 3.1561272
17.397846 39.334908 3.3513975
33.10778 36.831821 3.1667266
17.547609 39.420616 3.3564906
33.266327 36.763599 3.1635556
6.9427757 7.63797 1.6921875
33.325695 36.74955 3.16361
17.713512 39.55275 3.365015
7.0624123 37.359768 3.2837977
32.143307 7.0565157 1.5810461
32.314964 11.394315 1.8125359
6.9478178 7.4550076 1.6853875
32.960537 11.946943 1.8409735
17.91992 39.760384 3.3794484
33.008598 11.963264 1.8426896
32.964912 11.90892 1.8399265
6.9497614 7.2676973 1.6773635
32.953979 11.853985 1.838025
32.570587 11.453877 1.8188857
6.9485865 7.1714172 1.6742197
33.490799 41.445599 3.4212966
16.803932 39.516506 3.3730836
18.464502 43.845909 3.5992184
7.1467028 6.9317493 1.661747
32.710556 11.472015 1.822399
7.3416748 12.505493 1.9612812
13.018017 37.837753 3.2987566
7.1496754 6.740036 1.6544856
32.726967 11.384926 1.819689
32.339851 11.047313 1.8029037
33.170284 32.939823 2.9723334
33.310448 41.907425 3.4536066
12.686426 37.821335 3.3029766
16.506758 39.671379 3.389358
18.162807 40.18689 3.411479
18.181404 40.230675 3.4147615
11.647579 37.182747 3.2742405
11.683481 37.182491 3.2741084
11.762871 37.270481 3.278554
12.586337 37.815075 3.3049743
12.523398 37.80529 3.3046584
11.46139 37.138302 3.2744794
33.050606 33.323776 2.9992766
12.321271 37.793285 3.3076866
32.340248 10.7184 1.7943196
12.254391 37.788483 3.3086514
16.113201 39.814091 3.4052994
16.226551 39.845848 3.4066248
6.1389894 37.702621 3.3262124
11.252278 37.122765 3.278343
32.979656 33.596764 3.0191214
7.3242779 11.584311 1.9270804
18.376553 40.672546 3.4477713
11.923121 37.803692 3.316565
32.18261 10.342775 1.7807533
37.678474 25.698963 2.5851417
11.76574 37.820122 3.3209672
7.2470512 11.348816 1.919744
5.8120928 37.905495 3.3461537
33.34478 42.650604 3.5092738
32.17012 10.202885 1.7773166
10.705787 37.144444 3.2903166
10.50053 37.205925 3.299289
10.424662 37.202213 3.3003418
5.3619976 38.069538 3.3674285
38.233368 25.164074 2.5697203
32.120674 9.6587505 1.7613891
10.211339 37.268616 3.310606
4.8344002 37.6982 3.3523061
4.6819878 37.536106 3.3441372
4.5822353 37.522583 3.3457451
32.117649 9.5371513 1.7588996
7.0572472 25.390387 2.6895652
7.0492849 25.443516 2.6934352
33.53709 43.501045 3.573163
6.9065418 25.547712 2.7044868
6.9065418 25.547712 2.7044868
38.813835 21.394245 2.3781536
38.858154 22.280586 2.4254231
38.821487 21.496075 2.3835757
38.817574 21.292809 2.3727145
38.836578 21.342657 2.3763201
3.9449635 37.512215 3.3583064
33.203522 34.748798 3.1150632
3.7031708 37.510532 3.363019
18.480492 46.31517 3.7863405
18.40262 46.316086 3.7866461
33.419788 39.48317 3.3726285
3.5957355 37.546997 3.3683279
33.192413 39.659863 3.3838317
33.229103 35.060432 3.1396618
9.618228 37.878239 3.3682055
33.21199 39.816132 3.3961325
33.226215 35.303925 3.1597071
32.555393 8.8537951 1.747939
9.141469 37.890659 3.3794541
9.0568428 37.889015 3.3806462
14.794918 37.161823 3.3228364
14.804863 37.199444 3.3258176
14.852866 37.219933 3.3267555
14.852866 37.219933 3.3267555
14.725828 37.178009 3.3259327
14.894133 37.255295 3.3295126
14.894133 37.255295 3.3295126
14.638332 37.116554 3.3229337
14.676851 37.157753 3.3250105
15.020893 37.356689 3.3355205
15.058437 37.398113 3.3376131
15.168283 37.475792 3.3424082
14.389048 37.07468 3.3235178
14.345043 37.04504 3.322077
14.389048 37.07468 3.3235178
8.3054743 37.453362 3.3648236
14.442768 37.140968 3.3278883
14.442768 37.140968 3.3278883
14.289894 37.033363 3.3226357
14.421393 37.124458 3.3270755
14.421393 37.124458 3.3270755
14.524038 37.215126 3.3325889
14.524038 37.215126 3.3325889
15.483313 37.742981 3.3596692
15.434107 37.721748 3.3586955
15.434107 37.721748 3.3586955
15.483313 37.742981 3.3596692
8.6486816 37.904808 3.3908477
14.096155 37.048058 3.3280659
8.3145399 37.634686 3.3784995
14.096155 37.048058 3.3280659
8.562623 37.901398 3.3929517
2.4217091 37.612343 3.3977237
13.997799 37.057808 3.3309145
8.3090916 37.737442 3.3860178
13.938471 37.050251 3.3307056
2.4449062 37.844814 3.4120865
7.7678509 37.295494 3.3661613
13.873663 37.054138 3.3331304
13.873663 37.054138 3.3331304
18.204453 43.002018 3.637048
13.809597 37.056885 3.3344893
8.3543568 37.932854 3.3993263
18.417582 43.12096 3.6447113
33.245274 36.103794 3.2234645
32.744267 8.226366 1.7347819
2.2427101 38.101395 3.4344902
33.51812 40.90799 3.483577
33.565166 45.878502 3.7493258
32.752831 8.071249 1.7304611
33.240635 36.370224 3.2457442
1.7169399 37.833099 3.4278786
15.559965 38.421638 3.4147496
33.625462 46.206627 3.7736902
33.236874 36.549435 3.2593493
33.509201 41.299477 3.514564
33.266273 41.497276 3.5269475
16.002342 38.801311 3.4396114
33.412712 41.408367 3.5217085
16.043961 38.846855 3.4429121
33.636635 46.431519 3.7906914
17.227188 39.274803 3.4619069
17.123165 39.234692 3.4601038
16.147701 38.890114 3.4448843
17.123165 39.234692 3.4601038
33.252735 36.711658 3.2729826
1.0540161 37.649315 3.4292445
6.5610094 37.235191 3.3889434
17.35494 39.336971 3.4658132
17.169243 39.273026 3.4630039
17.4053 39.363064 3.4670429
17.169243 39.273026 3.4630039
17.35494 39.336971 3.4658132
17.452633 39.398026 3.4697585
15.599195 38.747387 3.4420609
15.599195 38.747387 3.4420609
17.597832 39.499123 3.4766912
17.010447 39.30518 3.4682517
17.010447 39.30518 3.4682517
33.590862 46.63295 3.8056238
33.526512 46.695274 3.8101711
33.472542 46.77977 3.815871
17.707047 39.626091 3.4861283
15.684223 38.906689 3.4543085
15.894674 38.9884 3.4579864
17.750736 39.680382 3.4898901
17.852602 39.737366 3.4936042
17.797218 39.724777 3.4931133
17.90365 39.766319 3.4959862
16.839464 39.454975 3.4828372
17.948879 39.814087 3.4993942
17.96468 39.867771 3.5032153
17.96468 39.867771 3.5032153
18.016758 39.892376 3.5053616
16.754347 39.529217 3.4910951
16.678871 39.570511 3.4955559
16.678871 39.570511 3.4955559
13.079821 37.978008 3.4252267
16.586039 39.659916 3.5046501
18.118299 40.181992 3.5285316
18.118299 40.181992 3.5285316
16.44923 39.698227 3.5091534
33.327198 42.417488 3.5990074
18.155447 40.273628 3.5363159
18.155447 40.273628 3.5363159
11.648908 37.197716 3.394208
11.588714 37.182156 3.3935738
11.715842 37.254784 3.3970404
11.532005 37.159561 3.3935535
11.73184 37.33094 3.4030645
11.459747 37.158081 3.3947136
11.73184 37.33094 3.4030645
16.317369 39.804985 3.5203063
11.753499 37.400684 3.4077258
11.400067 37.140289 3.3949602
11.775671 37.468254 3.4122686
11.326839 37.138985 3.3971345
16.167599 39.870872 3.5283303
12.575148 38.067654 3.4437027
11.267782 37.167171 3.4008398
18.287994 40.585632 3.561583
18.287994 40.585632 3.561583
11.12183 37.162491 3.4030733
11.12183 37.162491 3.4030733
16.017881 39.932648 3.536134
11.04368 37.166451 3.4055455
11.834994 37.740173 3.4336298
10.880759 37.085793 3.4027689
11.701745 37.672012 3.4314241
11.766506 37.78495 3.4382539
10.953465 37.184486 3.409812
18.309647 40.750542 3.5763421
10.953465 37.184486 3.409812
5.2564297 37.889633 3.467309
11.683613 37.799259 3.4412954
12.130929 38.096001 3.4556959
11.916785 38.037628 3.4552817
33.420555 48.537548 3.9461284
11.916785 38.037628 3.4552817
10.778358 37.165085 3.4123554
12.081195 38.115833 3.4589238
12.010883 38.113892 3.460053
10.694086 37.173565 3.4150896
11.941084 38.109776 3.4610641
4.9427109 37.822777 3.4697733
33.387192 38.214706 3.3970101
10.51102 37.207233 3.4225011
10.51102 37.207233 3.4225011
10.356083 37.203594 3.4258213
33.390869 38.438179 3.4159629
33.386627 38.541626 3.4245152
4.8497887 38.709755 3.5355549
33.524601 44.004295 3.7253053
18.584044 46.302193 3.8994689
18.152617 46.315529 3.904608
21.496193 -7.0932961 1.0364238
3.4046955 37.526268 3.4870193
33.428276 44.590668 3.77001
29.544655 -6.7158394 1.039108
18.649124 47.088135 3.9623294
33.238579 40.019203 3.5431037
13.16136 -6.6641827 1.1118805
28.590948 -7.7077961 1.0072107
28.70158 -7.7658005 1.0057461
2.5015144 37.880558 3.5339844
13.358859 -7.1544914 1.0940129
8.2643127 37.361721 3.4922464
9.2012415 38.229401 3.5365782
13.065791 -7.112114 1.0982471
8.2906065 37.429348 3.496779
8.1984434 37.335133 3.4920425
9.1252489 38.216484 3.5371389
8.318388 37.494568 3.501178
8.1269102 37.31501 3.4922032
7.9669104 37.289989 3.4943964
8.935585 38.235294 3.5437772
8.8497543 38.23291 3.544934
7.8735313 37.290306 3.4977252
28.294369 -8.4975338 0.98196304
8.7910852 38.249718 3.5480294
8.4034204 37.93578 3.5335138
8.2530432 37.803986 3.5269589
18.27792 43.012474 3.7725592
18.211319 43.004578 3.7723563
7.707057 37.31601 3.503655
18.136921 43.037415 3.7763605
8.686327 38.267078 3.5523076
18.136921 43.037415 3.7763605
7.62992 37.298183 3.5049582
17.99682 43.048847 3.7784355
18.064165 43.055542 3.7785716
18.064165 43.055542 3.7785716
17.883955 43.0928 3.7831616
7.5304136 37.303074 3.5075505
17.883955 43.0928 3.7831616
17.883955 43.0928 3.7831616
17.883955 43.0928 3.7831616
18.433516 43.248405 3.7906764
17.945658 43.123344 3.7855937
8.5107775 38.263115 3.5566797
8.3274565 38.165722 3.5530753
1.2751255 37.624722 3.5473723
8.3790321 38.209991 3.5552735
29.106878 -8.7727661 0.97457623
1.14011 37.618435 3.5504856
7.3206501 37.319389 3.5151229
33.608475 46.590408 3.9284697
18.450638 43.671501 3.8272743
33.489227 46.941376 3.954648
18.564384 43.804539 3.8380222
6.757225 37.338646 3.5320299
6.757225 37.338646 3.5320299
6.6767025 37.319614 3.5322785
6.5052443 37.337212 3.5387919
6.5052443 37.337212 3.5387919
33.560398 47.423607 3.9932294
33.469475 47.646923 4.0104828
33.315975 42.074474 3.7148871
33.316483 42.2239 3.727886
33.310043 42.517372 3.7526202
33.2962 42.801361 3.7758694
4.7852879 37.421261 3.595022
4.8223934 37.534561 3.6019623
5.1017513 37.877068 3.6193643
4.8569317 37.602295 3.6064734
4.8569317 37.602295 3.6064734
4.8811722 37.678612 3.6114779
4.9220467 37.838173 3.6218815
3.9703102 37.462479 3.6219442
3.8465881 37.464817 3.6254809
4.7999744 38.5975 3.6829338
33.332199 44.11441 3.8860512
33.461582 44.03157 3.8811932
4.8015728 38.69957 3.6913931
18.512733 46.276993 4.0535779
18.361431 46.254181 4.0528564
18.318455 46.276577 4.0551977
18.573927 46.366035 4.0611444
18.573927 46.366035 4.0611444
29.555799 -6.9478397 1.1738712
3.4291801 37.502075 3.640867
29.372959 -7.2128658 1.1663046
18.604008 46.648849 4.0851874
18.604008 46.648849 4.0851874
28.532684 -7.6379166 1.153345
18.638933 46.913132 4.1072221
13.631954 -6.9562988 1.2419138
18.610634 47.322315 4.1432247
2.4574547 37.605587 3.6776469
2.4068356 37.543648 3.6745002
2.4791832 37.688656 3.6830204
33.384037 45.403198 3.9948831
2.3043728 37.570728 3.6792908
2.3043728 37.570728 3.6792908
1.764616 37.767807 3.7106395
33.632038 46.037086 4.0520105
33.652222 46.278214 4.0718536
1.3393917 37.772022 3.7242835
1.2672024 37.671047 3.7191195
1.1946087 37.620392 3.7176504
1.266798 37.721371 3.7228143
33.644753 46.463326 4.0877895
0.91039658 37.617218 3.7264287
0.64019394 37.599506 3.7333813
33.4692 47.647011 4.1857395
33.437004 47.792912 4.1976566
33.382195 47.886742 4.2058611
33.385944 48.123539 4.2255268
21.320326 -6.2631207 1.380844
21.813503 -6.3240604 1.3769602
22.580017 -6.3457699 1.373273
21.676788 -6.3678551 1.3770709
21.405891 -6.3706722 1.3778129
21.97941 -6.9573631 1.3635645
29.151165 -7.0554333 1.3617246
29.42071 -7.1716404 1.3606282
29.526953 -7.2091141 1.3602765
28.698263 -7.6852779 1.3475486
13.717658 -7.3896847 1.4267457
13.401973 -7.4170322 1.4303287
21.950228 20.481121 3.740818
21.980207 20.470892 3.839314
21.968943 20.465155 3.8620775
21.97027 20.467129 3.9162564
22.009592 20.456251 3.9656162
21.980982 20.463049 4.0041289
21.942129 20.471001 4.0277157
22.000584 20.456217 4.0457592
21.981396 20.461029 4.0601001
21.942469 20.465498 4.130568
21.982424 20.458443 4.1631064
21.982819 20.456743 4.2130861
21.973396 20.458729 4.2372575
22.013159 20.450113 4.2807293
21.985077 20.453024 4.4101624
21.98583 20.454924 4.4292889
21.996134 20.452757 4.4631882
21.976498 20.455414 4.4814205
21.986973 20.455179 4.4973965
22.00486 20.443253 4.5067139
21.978233 20.460186 4.5197244
21.986908 20.451536 4.5472736
21.949663 20.466343 4.57022
22.007401 20.44907 4.5801215
22.007202 20.447565 4.5900559
21.95874 20.455833 4.650744
21.98954 20.451149 4.7184896
21.979605 20.452044 4.7265816
22.019726 20.447029 4.7391996
21.971743 20.456921 4.8059821
21.982681 20.458578 4.8230591
21.973017 20.459751 4.8441834
22.003492 20.455641 4.8829193
22.249807 20.424147 5.331069
22.004519 20.471489 5.3584442
22.005478 20.474735 5.3706322
21.986748 20.481546 5.3840771
21.99947 20.487175 5.4544368
22.028904 20.481102 5.4570193
22.01989 20.485886 5.4653168
22.020823 20.489559 5.4695153
21.990982 20.492779 5.4838061
8.5310154 37.569534 2.9956415
8.6509647 37.560181 2.9944444
16.289009 17.776091 1.435081
17.223457 21.765961 1.6994519
16.716177 22.601162 1.7706585
16.349327 17.787031 1.4355874
16.846027 17.381844 1.3972324
17.34627 21.719971 1.6965882
16.809464 22.606609 1.7720822
16.95253 14.126469 1.1651611
17.227318 21.916494 1.7141013
17.196402 19.943665 1.5752667
17.233089 21.985807 1.7209207
17.253405 22.015905 1.7236372
17.247852 22.076344 1.7290614
9.8137217 37.512001 2.9864814
16.119217 38.767593 2.9425631
17.277744 19.98015 1.580156
-2.0100498 20.533089 2.0273831
-1.976078 20.628059 2.033428
18.212641 39.913345 2.9798887
18.170416 39.896523 2.9795833
15.951058 38.65078 2.9377999
15.919097 38.617027 2.9360721
-1.909584 20.470301 2.0217903
16.977081 22.57852 1.7725539
18.690365 43.744823 3.245646
18.605419 43.732307 3.2465506
18.968971 53.016197 3.8999968
15.522285 22.630104 1.8089954
-1.7817307 20.760307 2.042747
17.256861 22.255562 1.7466474
15.569194 22.619144 1.8082259
25.66581 17.281689 1.2146314
25.755817 17.293627 1.2135783
18.451456 52.826118 3.898406
25.723808 17.304909 1.2160614
17.272629 39.223518 2.9556551
18.040504 39.644409 2.9693904
17.351624 39.266262 2.9570284
17.323542 39.224899 2.9556797
17.439953 39.292305 2.9580181
17.251087 22.344316 1.7550955
25.615643 17.311327 1.2198086
18.855349 52.740097 3.8857458
18.814302 52.733383 3.8861356
18.646881 52.715942 3.8884335
14.344976 36.986153 2.8592348
17.401892 39.268898 2.9571559
15.597654 22.699968 1.8163879
25.49025 17.335871 1.2252107
25.461262 17.324224 1.2249942
25.551964 17.3286 1.2233878
17.258703 22.380598 1.7585208
15.549873 22.892469 1.8321097
14.555707 37.120598 2.8663588
14.497797 37.0522 2.8627124
17.151283 20.443911 1.6238779
25.26499 17.318094 1.2297107
25.292244 17.350157 1.2324203
17.285536 22.427406 1.7632923
28.887882 20.011059 1.3468821
17.215948 22.581839 1.7767642
17.199337 22.601862 1.7785413
17.157887 20.489887 1.6290178
27.289246 40.507515 2.8413019
18.567957 43.324444 3.2263198
23.318674 25.26453 1.8407667
15.611423 37.796741 2.8961964
15.656539 37.845139 2.8986888
15.696833 37.86573 2.899303
24.559418 18.64887 1.3434098
28.748505 20.011662 1.3528805
15.594807 37.745403 2.8938944
28.761126 20.014942 1.3528473
24.645277 19.635021 1.4138265
15.016708 37.206783 2.8687646
17.270391 22.658434 1.7850785
17.26796 22.686413 1.7881252
10.438742 37.183117 2.9648857
18.194675 42.986065 3.2141273
24.689451 19.648008 1.41482
15.509373 37.572491 2.8853929
24.621078 19.657421 1.416936
18.310076 42.988724 3.2128792
28.676981 20.027138 1.3585033
25.926125 17.632309 1.2461288
15.91197 22.605623 1.8120477
24.665922 19.665998 1.4176013
15.375948 37.426617 2.878829
15.265232 37.321732 2.8737009
15.22653 37.299583 2.872942
18.531853 43.011688 3.2108274
32.780125 19.490435 1.2345226
25.507023 20.626249 1.4702036
33.049797 29.889591 1.9713804
33.053848 29.859982 1.9691861
26.258579 19.996485 1.4104671
32.798798 23.244152 1.5044494
17.929762 42.622204 3.1988311
32.803036 23.305634 1.5097407
26.087633 17.79917 1.2596099
33.034492 29.761229 1.9645684
33.142635 33.473709 2.2276614
32.806015 23.366472 1.515013
29.705818 21.005379 1.4124279
32.805058 23.444305 1.5215788
32.807095 23.427923 1.5203691
32.873772 19.868839 1.2655063
17.32143 20.885139 1.6677452
27.064579 20.407936 1.4277382
32.876274 19.912008 1.2695304
27.090654 20.42989 1.4297529
33.107292 33.361164 2.223402
14.113481 22.678127 1.8652687
33.011192 29.390944 1.9437058
17.316307 21.011366 1.6798508
32.841858 23.887196 1.5573539
33.013245 29.228685 1.934113
33.016582 29.170994 1.929934
29.571901 21.077429 1.4264071
25.110207 17.832134 1.289645
33.629005 36.408897 2.4324164
25.026186 17.822464 1.290733
33.295452 27.168762 1.7824552
26.503569 18.095795 1.2799604
33.018044 29.039398 1.9215345
33.012184 29.095802 1.9256753
33.244614 27.717754 1.8226254
33.139198 33.151428 2.2118025
26.528212 19.359695 1.3694454
33.662075 36.352058 2.4286723
0.13038635 20.683605 2.0219209
33.257637 27.379028 1.7992312
33.005684 29.00766 1.9205385
33.229954 27.659494 1.8197894
32.856159 24.105795 1.5746241
16.308138 22.678535 1.8239043
14.01019 23.420866 1.9253591
14.264666 22.683697 1.8674821
33.224903 27.475471 1.8077941
33.008469 28.906042 1.914246
24.526812 17.88533 1.3097805
33.214279 26.646317 1.7499748
32.858368 24.296833 1.5901872
33.209053 27.445906 1.8070266
33.145241 32.968952 2.2016883
33.209885 26.71693 1.7550966
32.996288 28.816582 1.9091355
27.708439 19.89205 1.3854077
16.375195 22.603428 1.8181404
33.211891 26.927034 1.7700162
33.218578 26.77285 1.7588949
33.212173 26.856693 1.7650011
33.227821 26.801332 1.7607278
33.190781 26.661152 1.7525311
32.864937 24.38168 1.5970933
33.205345 26.955288 1.7731694
27.67625 18.588572 1.2942667
16.377062 22.683496 1.8248056
33.583378 49.535709 3.374197
32.995171 28.544203 1.8917677
32.99493 28.57259 1.8937943
27.74954 20.973333 1.4635456
11.542751 37.125587 2.9564962
32.987823 28.443748 1.8857721
32.991524 28.529585 1.8918066
32.61763 20.162258 1.3038509
27.760117 20.99608 1.4659444
33.14732 32.806622 2.1930926
17.317003 21.319935 1.7098323
26.570023 19.51362 1.3855393
32.986122 28.386564 1.8827387
27.710464 19.998089 1.3969274
32.498558 16.661816 1.0580947
11.924237 37.443115 2.9730473
33.134335 32.737339 2.1894362
17.318022 21.390776 1.7168611
32.620754 20.246054 1.3117576
15.650837 24.954079 2.005868
27.853085 21.110739 1.4741492
2.4217319 37.473778 3.1771691
12.000094 37.411312 2.970181
32.975456 28.23056 1.8728573
15.654311 25.068232 2.0149264
31.428413 24.262579 1.6240016
16.571827 22.583828 1.8186033
32.871391 25.00943 1.6466746
18.904495 50.462723 3.754616
27.7766 21.072367 1.4740368
15.64417 25.108191 2.0179865
31.374863 24.091076 1.6129209
32.986374 27.953323 1.8538866
32.953518 28.101183 1.8661135
32.95533 28.074389 1.8641671
32.937805 28.127207 1.868299
32.662453 20.403418 1.3240877
31.378351 24.166431 1.619216
31.372124 24.118107 1.6159064
32.947987 28.045296 1.8622506
32.956669 27.991125 1.8582094
2.5877323 37.476868 3.1758845
27.723761 20.077499 1.4053094
32.870846 25.150042 1.6577022
32.863251 25.039246 1.6499727
17.090477 19.122482 1.563149
32.89386 25.382679 1.6747851
32.880962 25.300852 1.6692306
33.377911 40.081055 2.7112641
17.222664 19.047392 1.5560093
32.669701 20.522585 1.3344262
16.668583 22.590258 1.8200234
31.362946 24.235216 1.6264457
32.891399 25.5627 1.6886597
14.618948 22.650875 1.8676808
32.895752 25.534039 1.6865265
17.253483 19.032173 1.5552764
32.916767 26.038881 1.7230364
32.908997 25.985809 1.7194213
32.914211 25.93066 1.7153836
32.887878 25.755644 1.7034769
32.676785 20.660675 1.3461158
16.72805 22.59197 1.8208935
32.912888 26.162741 1.7329415
32.898487 26.108656 1.7293944
32.886803 25.810448 1.7084054
33.38821 39.918175 2.7024555
33.126045 32.319046 2.1678455
32.908642 26.366402 1.7485373
14.435212 23.40494 1.9282734
33.126404 32.242325 2.163377
17.232832 21.871666 1.7609301
17.348068 21.705631 1.7466695
17.053898 19.345724 1.584834
33.121044 32.277599 2.1660025
29.470598 19.982836 1.3676468
33.459808 35.603447 2.3966851
16.821779 22.582598 1.8212523
17.134201 19.31144 1.5816971
33.119034 32.219467 2.1629081
29.409988 19.973957 1.3692991
26.559235 18.582108 1.3314648
33.581009 48.545853 3.3167922
33.35952 39.660763 2.6897449
32.286205 17.048096 1.1021261
14.684646 23.046595 1.9014913
33.101475 32.132717 2.1591072
32.668633 20.887356 1.3674445
33.577263 39.415558 2.6686816
33.561909 39.436226 2.6704779
14.602031 23.393946 1.9289769
32.687695 21.029984 1.3792038
14.776678 23.048317 1.9016733
14.696607 23.206184 1.9146087
16.94157 22.559534 1.8210878
14.698214 23.240267 1.917002
33.077927 32.043701 2.1552715
32.691185 21.105337 1.385499
17.138187 19.523729 1.6017445
32.252884 17.181297 1.1153246
33.737991 39.22113 2.6534426
33.386395 39.445374 2.6768463
14.669188 23.383747 1.9288361
33.066799 31.944401 2.1504407
33.072777 31.911024 2.1479375
33.091961 31.885979 2.1457486
16.993656 22.574106 1.8230298
14.715321 23.315371 1.9239941
3.6049461 37.42458 3.1636872
14.708422 23.3459 1.9263139
17.14315 19.574495 1.6062574
17.103523 19.623938 1.6106164
14.713631 23.365194 1.9275777
33.504459 35.238499 2.3757687
29.13448 19.965734 1.3805557
18.804237 49.423553 3.6967723
26.208515 19.831112 1.4338428
32.668785 21.178469 1.3931861
17.244728 22.201796 1.7922102
33.611679 39.13575 2.6530418
32.931915 48.227852 3.3148911
33.200691 14.265458 0.8906455
33.535721 47.978058 3.2843347
16.330801 40.040241 3.0828667
17.018166 13.207196 1.1574718
33.090412 31.73851 2.137285
32.670071 21.292212 1.4032644
18.475195 49.08569 3.6826782
32.239578 17.379292 1.1337168
24.677637 19.609396 1.4524305
33.092148 31.685463 2.1344733
33.498554 35.048332 2.3653593
25.567097 20.566801 1.501802
28.981112 19.978115 1.3886914
28.955257 19.969656 1.3886358
33.51062 35.007687 2.3632128
25.670145 20.609081 1.5036366
25.619896 20.606371 1.5045061
28.939329 19.946468 1.3873215
26.289381 19.921291 1.4415629
13.157124 37.36504 2.9614723
32.673264 21.327818 1.4067352
32.70887 21.379274 1.4096467
33.081776 31.64365 2.1327178
13.212684 37.37751 2.9621882
33.532333 47.789177 3.2739637
16.934645 13.405824 1.176391
27.642235 17.40583 1.2348255
18.468912 40.886169 3.101907
32.719238 21.540426 1.422909
33.50946 34.851707 2.3541348
33.562389 47.677742 3.2663951
32.710972 21.508484 1.4208091
33.08033 31.412203 2.1192746
28.815907 19.967104 1.3944089
13.354709 37.374683 2.9609892
33.717152 38.683083 2.6245923
33.492355 34.785782 2.3518074
32.70879 21.621246 1.430891
32.713718 21.636436 1.4318686
33.064297 31.369001 2.1185427
16.459089 39.732204 3.065237
32.72361 21.702393 1.437359
33.079395 31.34108 2.1162348
17.230326 19.903414 1.6368622
4.2826385 37.355942 3.1534939
32.462288 17.938398 1.1758425
32.551235 18.037703 1.1810334
32.580421 18.062914 1.1822115
26.999874 20.300488 1.4595594
28.716934 19.975681 1.400121
27.629402 17.627659 1.2569106
28.629627 19.946035 1.4008586
33.708164 38.483429 2.6135721
26.555063 17.291721 1.2557048
33.049942 31.240332 2.1116889
32.624039 18.180866 1.1916945
32.721016 21.865551 1.452041
27.042637 20.370485 1.4656453
17.258865 19.974773 1.6443487
27.022797 20.361137 1.4653993
32.736977 21.998755 1.4621923
33.06403 31.076302 2.1017153
33.033276 30.942421 2.094837
29.719776 20.922506 1.4513552
15.389977 22.912853 1.8961049
16.946671 13.910881 1.2221309
32.729446 22.107996 1.4721363
16.752165 39.563103 3.053014
32.731247 22.158728 1.4767138
29.728729 20.949968 1.4541242
32.725502 22.128073 1.4746523
33.02948 30.907928 2.0934639
33.045433 30.782154 2.0851727
5.0275784 37.630615 3.165324
25.620106 17.310038 1.2827959
25.771467 17.320066 1.2803094
4.9228783 37.450401 3.1547041
16.847672 39.491364 3.0478911
32.740524 22.222784 1.4820819
25.815285 17.335329 1.2804698
33.031326 30.842262 2.0897512
13.800488 37.070164 2.9409075
25.649115 17.321613 1.2840096
33.06694 30.709118 2.0805192
5.2003002 37.771061 3.1726761
18.399843 40.263836 3.0710826
32.846348 14.964461 0.9649632
17.178896 20.397429 1.6831576
32.734802 22.379673 1.4953811
5.2714691 37.770123 3.1721072
32.999378 18.935177 1.2444937
32.849854 18.820759 1.2395073
32.836674 18.809271 1.238968
15.623465 22.719009 1.8813746
25.34086 17.361925 1.2954041
33.04443 30.535889 2.0706646
13.895913 37.007881 2.93646
5.3797951 37.786587 3.1719918
15.60994 22.861698 1.8928246
32.796654 18.795868 1.2398624
32.888847 18.885742 1.2443132
17.168821 20.508535 1.6932883
32.916969 15.178576 0.98072326
29.565947 21.0334 1.4695244
29.54616 21.017746 1.468828
32.588833 18.663374 1.2368273
33.184086 34.30003 2.3377726
16.013784 38.665695 3.0117397
16.209738 38.822845 3.0187874
32.717144 22.606329 1.5159063
26.564428 19.338802 1.4133185
15.945072 38.605949 3.0099409
15.797646 22.620783 1.8747075
32.725803 22.668488 1.5211524
26.432793 17.683561 1.2992301
14.104479 36.992958 2.934998
33.041962 30.278494 2.0563979
33.047226 30.217035 2.0519099
18.204546 39.858643 3.0523739
32.731239 22.698193 1.5231528
18.09219 39.72591 3.0462999
30.696026 33.650105 2.3471091
33.029015 30.241703 2.0550544
32.740818 22.840725 1.5351059
32.914398 19.27766 1.2776992
27.731594 19.882696 1.4303788
32.928337 19.314005 1.2809954
32.754379 22.99567 1.546856
17.538195 39.329407 3.0317841
33.036461 30.041012 2.0426111
33.218575 33.975113 2.3189189
33.011742 29.938808 2.0368581
33.062153 34.078838 2.330616
33.043404 15.64493 1.0182794
32.740616 23.017859 1.5497299
33.202961 33.917164 2.3161249
25.897774 20.371801 1.5059919
26.346216 17.798178 1.3132341
14.646197 37.140274 2.9390476
17.875254 39.406441 3.0321481
14.587039 37.10688 2.9379203
33.038116 34.082314 2.3323743
26.326464 17.818098 1.3160732
25.873989 20.382534 1.5082619
26.299377 17.805841 1.315773
26.134922 17.813593 1.3208053
18.772575 47.162865 3.566534
32.757385 23.169609 1.5621876
23.41403 25.225166 1.9061401
14.750463 37.225151 2.9438901
26.014393 17.82399 1.3250971
26.147173 17.825315 1.3223839
32.996216 29.764317 2.0277686
15.746121 37.894527 2.9725101
32.877277 19.56707 1.3051103
13.805268 22.662405 1.9288261
32.762405 23.401682 1.5806134
32.749561 23.313545 1.5746087
14.750039 37.094093 2.9365716
32.964108 29.678053 2.0243101
32.880325 19.657244 1.3124703
15.587779 37.704247 2.9633105
33.191101 33.614494 2.2998357
17.330473 20.898233 1.7296547
18.766682 46.933899 3.5533614
32.984486 29.624317 2.0200524
15.142446 37.280193 2.943532
15.044215 37.194359 2.9394968
33.256264 37.472916 2.57423
15.535318 37.629837 2.9601235
32.754166 23.482841 1.5885727
15.501091 37.602051 2.9588687
32.979916 29.457962 2.0093052
15.446686 37.495766 2.9534531
33.265556 37.349281 2.566232
33.182274 33.541714 2.296845
33.180134 33.496269 2.2936537
32.820786 15.96452 1.0537677
25.748144 20.511686 1.5271397
33.274288 37.291889 2.562963
32.973267 29.278584 1.9986773
32.969109 29.175007 1.9923918
32.887207 19.898026 1.3334825
17.328529 21.098866 1.7479944
32.734444 15.970211 1.0570016
32.797676 23.949913 1.6239226
32.798187 23.889984 1.6196442
25.720108 20.541546 1.5318644
33.181221 27.883114 1.89691
33.183914 27.826675 1.8928338
33.192287 27.771559 1.8887316
32.961418 29.041111 1.9840223
32.897343 19.935593 1.3369462
32.803398 24.022451 1.62997
32.960419 29.012011 1.9829737
33.168221 33.271271 2.2818942
33.199501 27.223953 1.8505853
32.961613 28.983316 1.9809051
33.185963 27.700134 1.8847818
33.188416 27.672085 1.8827325
25.566195 20.53647 1.5357603
32.803864 24.082003 1.6352037
32.816425 24.166035 1.6409223
17.327953 21.171268 1.7551681
18.734934 46.446671 3.5263555
14.136131 22.664505 1.9300015
26.550547 18.225523 1.351379
33.172791 27.096178 1.8430537
16.397167 22.617668 1.8788552
33.185654 27.404491 1.8647376
33.168346 27.432079 1.8670681
33.172218 27.460192 1.8689883
33.166054 27.515648 1.8730677
33.161148 27.571747 1.8771665
33.251335 37.100849 2.5538549
6.844718 37.232231 3.1225958
33.206646 33.107796 2.2714458
33.556671 44.907196 3.1043139
33.144478 26.636543 1.8119231
33.143486 26.678802 1.8149536
33.159969 26.859083 1.8274432
33.159889 26.942989 1.8334203
33.163876 27.068575 1.8422792
17.347029 21.275095 1.7641642
17.332909 21.299559 1.7662048
32.945248 28.79343 1.9697343
32.814789 24.400249 1.6596415
32.824741 24.382368 1.6581576
33.255589 36.977726 2.5470026
32.940533 28.607204 1.957575
32.94471 28.636265 1.9595561
32.820873 24.54187 1.6706009
32.826691 24.640591 1.6785107
18.604256 46.205418 3.5149465
32.827888 24.611898 1.6764421
32.819767 24.599831 1.6757544
26.557159 18.310228 1.3602796
15.615482 25.16094 2.0795066
32.93272 28.450279 1.9475678
6.9775953 37.227104 3.1214266
33.234539 36.890068 2.5422082
17.355005 21.422272 1.7774847
33.238232 36.830101 2.5388622
32.937126 28.269505 1.935604
15.69278 24.923166 2.0619423
32.937004 28.395365 1.9445693
32.935829 28.310814 1.9385731
15.649518 25.139442 2.0782588
15.689026 24.992525 2.0669608
32.936295 28.367283 1.9425846
33.601257 36.417583 2.5028121
33.503567 36.527645 2.5127156
33.287445 36.696774 2.5293298
18.376089 45.974621 3.5053411
7.1448059 37.237148 3.1206114
26.566736 18.378317 1.3669314
32.947445 27.951572 1.9137475
32.928146 28.212566 1.9327418
32.92894 28.15674 1.9287494
15.680082 25.116964 2.0770144
32.904999 28.111952 1.9270691
33.514389 36.447556 2.5077863
32.820919 25.065849 1.711925
32.79855 24.945127 1.7038012
17.348495 21.486099 1.7841731
32.902626 28.056095 1.9231415
18.36692 45.793953 3.4946747
17.258692 21.675343 1.8005514
7.3120327 37.208393 3.117033
32.826523 25.189802 1.7216363
32.82407 25.217852 1.7236856
33.545235 44.336895 3.0709624
33.166885 32.670334 2.2481525
33.174763 32.636345 2.2455657
32.640076 20.24523 1.374464
32.920341 26.614811 1.823137
18.356438 45.618958 3.4844396
32.847176 25.887621 1.7728988
32.91552 26.587004 1.8212588
32.699074 20.410723 1.3860044
32.854408 26.265835 1.8006823
32.860878 26.211327 1.7966639
32.854469 26.036194 1.7843277
32.83667 25.861578 1.7722691
16.828915 22.587126 1.878581
32.853313 26.508327 1.8189769
14.585426 22.652433 1.9306715
17.078716 19.132702 1.6272992
17.06974 19.147123 1.628516
32.694714 20.558723 1.3996445
32.706139 20.590696 1.4016799
33.5186 44.021221 3.0530567
17.453568 21.750673 1.8078117
32.707405 20.630068 1.4054596
16.883654 22.587214 1.8794353
27.007401 20.337246 1.5051365
32.394325 16.706575 1.1336792
33.159531 32.177361 2.2202213
17.274048 22.158426 1.8436533
33.116009 32.094765 2.2172654
32.699509 20.935368 1.4313787
33.491966 43.527107 3.0254517
8.45152 37.422997 3.1202536
8.4063473 37.380909 3.1182117
26.034161 20.172855 1.520026
32.567307 20.870817 1.4315829
33.118919 31.909103 2.2069905
32.7127 21.101837 1.4459629
27.816418 20.958279 1.540277
32.70285 21.223356 1.4568305
32.712067 21.254993 1.4588885
28.880711 20.026606 1.4524276
33.474247 35.301773 2.4450901
32.231037 17.192537 1.1817663
32.247753 17.234341 1.1843897
32.725914 21.452768 1.4746854
28.737242 19.985603 1.4545468
17.151394 19.762753 1.683666
21.502832 -6.3217869 -0.26590443
32.720695 21.511002 1.4799455
27.649382 17.416452 1.2955962
33.460171 43.043106 2.9976735
33.114853 31.507465 2.1834884
33.117359 31.473106 2.1809888
17.385689 22.549658 1.8791809
32.747105 21.605196 1.4870976
27.646996 17.515652 1.3047163
32.730915 21.652279 1.4917957
33.488514 34.972942 2.4253821
17.106394 20.044338 1.7086811
33.100185 31.306486 2.1724944
33.45512 42.680649 2.9759798
26.477846 19.146658 1.447593
33.506592 34.785606 2.4136648
33.478226 42.606049 2.9711812
17.513023 22.569256 1.8818951
17.135555 20.114513 1.7150674
17.094242 20.139336 1.7177086
32.736324 21.91765 1.5145901
32.743343 21.984592 1.519209
21.726446 -5.4976959 -0.20492768
25.793861 17.235935 1.3289963
17.108643 20.235233 1.7262387
21.944107 -5.3255749 -0.19627011
25.853151 17.253561 1.3289977
25.820555 17.259789 1.3311332
25.761543 17.246265 1.3314182
26.492943 19.2768 1.4605527
32.758583 22.167244 1.5338992
15.545226 22.719675 1.9382279
32.753864 22.204348 1.537644
33.091393 30.75742 2.1395965
33.458866 42.290127 2.953104
15.536758 22.74861 1.9404675
32.621262 18.173584 1.2534055
25.523712 17.296429 1.342025
33.107475 30.615875 2.1301792
25.476183 17.308573 1.3438948
18.619099 43.760834 3.3726349
17.15287 20.358166 1.7370663
